# .PCD v0.7 - Point Cloud Data file format
VERSION 0.7
FIELDS x y z intensity
SIZE 4 4 4 4
TYPE F F F F
COUNT 1 1 1 1
WIDTH 1438
HEIGHT 1
VIEWPOINT 0 0 0 1 0 0 0
POINTS 1438
DATA ascii
24.381001 24.289 0.99199998 0.27000001
24.306999 24.292 0.991 0.18000001
24.344999 24.483 0.995 0.20999999
24.264999 24.556999 0.995 0.36000001
24.142 24.586 0.99299997 0.25
17.893 18.327 0.792 0.19
17.839001 18.388 0.792 0.31999999
17.622999 18.278999 0.787 0.25
17.476 18.183001 0.78299999 0.34999999
17.358999 18.174999 0.78100002 0.23
16.976999 17.886999 0.76999998 0.19
17.034 18.059999 0.77399999 0.19
24.367001 26.014999 1.02 0.14
24.417 26.233999 1.025 0
24.355 26.332001 1.025 0.07
24.349001 26.409 1.026 0
24.268999 26.488001 1.026 0
32.897999 36.147999 1.322 0.11
23.73 26.229 1.0140001 0.18000001
23.802999 26.476 1.0190001 0
23.608999 26.427 1.015 0.16
32.158001 36.237999 1.312 0.2
32.027 36.205002 1.309 0.18000001
31.848 36.231998 1.307 0.20999999
31.672001 36.261002 1.3049999 0.18000001
31.489 36.279999 1.302 0.23
31.306999 36.299999 1.3 0.19
31.135 36.331001 1.298 0.23
30.959999 36.358002 1.296 0.18000001
30.84 36.331001 1.294 0.20999999
30.67 36.362 1.2920001 0.17
30.489 36.379002 1.289 0.14
20.009001 24.014 0.92000002 0.14
19.870001 24 0.91799998 0.27000001
19.783001 24.048 0.91799998 0.25
19.721001 24.049999 0.917 0.30000001
19.629 24.091 0.91600001 0.27000001
19.554001 24.153 0.91600001 0.28
19.528 24.277 0.91799998 0.23
19.527 24.433001 0.921 0.23999999
19.940001 25.112 0.93900001 0.16
20.121 25.587999 0.94999999 0.31999999
19.959 25.545 0.94700003 0.18000001
14.503 18.671 0.74699998 0.16
14.443 18.715 0.74699998 0.23999999
14.396 18.775999 0.74699998 0.44
14.195 18.635 0.74199998 0.23999999
14.149 18.635 0.741 0.27000001
14.083 18.67 0.741 0.41999999
13.973 18.645 0.73900002 0.30000001
13.954 18.742001 0.74000001 0.44
13.851 18.726 0.73900002 0.14
13.783 18.757 0.73799998 0.30000001
13.712 18.784 0.73799998 0.43000001
13.666 18.782 0.73699999 0.34
13.57 18.775 0.736 0.28999999
13.522 18.832001 0.736 0.30000001
13.686 19.188999 0.745 0.41999999
13.655 19.273001 0.74599999 0.37
13.621 19.353001 0.74699998 0.30000001
16.879 24.155001 0.87900001 0
16.815001 24.143999 0.87800002 0.13
25.502001 36.887001 1.23 0.18000001
13.509 19.65 0.75099999 0.17
13.418 19.65 0.75 0.44999999
13.331 19.655001 0.74900001 0.25
13.196 19.587 0.74599999 0.18000001
13.084 19.554001 0.74400002 0.55000001
15.326 22.990999 0.838 0.15000001
15.232 23.004999 0.83700001 0.40000001
12.835 19.511 0.74000001 0.20999999
12.733 19.489 0.73799998 0.15000001
12.708 19.584 0.74000001 0.31
12.666 19.653999 0.741 0.43000001
12.583 19.593 0.73900002 0.20999999
12.564 19.700001 0.74000001 0
22.728001 35.924999 1.177 0.1
13.015 20.695 0.76499999 0
13.036 21.021 0.77200001 0.31
12.914 20.969999 0.76899999 0.30000001
12.871 20.975 0.76899999 0.22
12.919 21.202 0.77399999 0.19
21.862 36.168999 1.171 0
21.848 36.403999 1.175 0
21.813 36.606998 1.179 0
21.791 36.832001 1.183 0.079999998
13.127 22.409 0.80000001 0.30000001
21.656 37.27 1.1900001 0.2
21.507 37.282001 1.189 0.19
21.375999 37.325001 1.188 0.41999999
21.228001 37.338001 1.187 0.25
21.077999 37.347 1.1849999 0.19
20.938 37.373001 1.184 0.41999999
20.854 37.361 1.183 0.23999999
20.705999 37.369999 1.181 0.16
20.566 37.395 1.1799999 0.41999999
20.42 37.405998 1.179 0.23
20.277 37.424999 1.178 0.30000001
20.139 37.449001 1.177 0.18000001
19.993 37.459 1.175 0.14
19.987 37.59 1.178 0.14
20.018 37.937 1.1849999 0.28
20.039 38.266998 1.192 0.11
20.065001 38.612 1.199 0.15000001
20.091999 38.963001 1.207 0.12
20.068001 39.217999 1.212 0
19.999001 39.236 1.211 0
20.169001 39.877998 1.226 0
20.250999 40.355999 1.237 0
19.205 38.57 1.1900001 0
18.733 37.919998 1.1720001 0
18.509001 37.764999 1.166 0
18.525 38.099998 1.173 0
18.780001 38.780998 1.1900001 0
18.635 38.791 1.188 0
17.945999 37.658001 1.158 0
20.822001 44.058998 1.318 0
18.073999 38.548 1.178 0
17.358 37.324001 1.146 0
17.212 37.317001 1.1440001 0
17.761999 38.671001 1.178 0
17.495001 38.405998 1.169 0
17.478001 38.692001 1.175 0.079999998
17.316999 38.658001 1.173 0
17.385 39.139999 1.184 0
17.281 39.237999 1.1849999 0
20.992001 48.088001 1.403 0
21.101 48.546001 1.414 0
22.575001 52.389999 1.508 0.090000004
22.382 52.395 1.506 0
22.202999 52.431999 1.505 0
22.236 52.973 1.517 0
22.277 53.542999 1.529 0
23.507 56.751999 1.607 0.07
23.308001 56.776001 1.6059999 0.090000004
23.106001 56.792 1.605 0.090000004
22.909 56.818001 1.604 0
22.709999 56.839001 1.602 0
22.674999 57.272999 1.6109999 0
22.733 57.952 1.626 0
23.135 59.250999 1.6569999 0
23.014999 59.494999 1.661 0
22.997 60.009998 1.6720001 0
23.056 60.734001 1.688 0
23.361 62.125999 1.72 0
23.278 62.502998 1.727 0
23.253 63.041 1.739 0
23.417999 63.798 1.756 0
23.709 66.525002 1.817 0
23.695 67.152 1.83 0
23.749001 67.985001 1.848 0
16.025 50.387001 1.413 0
2.825 14.962 0.55500001 0.25999999
2.7780001 14.97 0.55500001 0.31999999
2.733 14.991 0.55500001 0.27000001
2.6889999 15.015 0.55599999 0.28999999
2.6600001 14.988 0.55500001 0.66000003
2.6129999 15 0.55500001 0.36000001
2.566 15.01 0.55500001 0.37
2.5190001 15.016 0.55500001 0.37
2.46 14.951 0.55299997 0.37
2.4200001 15.006 0.55400002 0.31
2.378 15.041 0.55500001 0.33000001
2.3540001 15.045 0.55500001 0.31999999
2.3080001 15.058 0.55500001 0.31
2.2609999 15.069 0.55500001 0.34
2.2130001 15.072 0.55500001 0.31999999
2.1659999 15.079 0.55500001 0.23999999
2.151 15.32 0.56099999 0
2.0699999 15.087 0.55500001 0.059999999
6.0300002 44.845001 1.239 0.18000001
5.5929999 42.601002 1.187 0.1
5.4590001 42.618999 1.187 0
4.3429999 34.736 1.006 0.12
4.2199998 34.629002 1.003 0.28999999
4.0879998 34.449001 0.99800003 0.14
4.0029998 34.660999 1.003 0.16
4.908 43.152 1.197 0.11
3.819 34.492001 0.99900001 0.34999999
3.744 34.821999 1.006 0.2
3.6429999 34.912998 1.008 0.17
3.5280001 34.875 1.007 0
3.4230001 34.926998 1.008 0
4.1420002 43.747002 1.209 0
4.0640001 43.650002 1.207 0
3.921 43.601002 1.205 0
3.763 43.363998 1.2 0
3.6259999 43.373001 1.2 0
3.6099999 44.887001 1.234 0
4.0310001 52.230999 1.401 0
3.9460001 52.201 1.401 0
0.82800001 13.523 0.51700002 0
0.61199999 12.137 0.48500001 0.16
0.51099998 11.554 0.472 0.31
0.47499999 11.563 0.472 0.36000001
0.43799999 11.543 0.47099999 0.25999999
0.447 12.323 0.48899999 0.34999999
0.39500001 11.914 0.47999999 0.36000001
0.35499999 11.832 0.47799999 0.31
0.32100001 11.961 0.48100001 0.38999999
0.336 14.394 0.53600001 0.15000001
0.29100001 14.403 0.53600001 0.47
0.199 11.329 0.46599999 0.38
0.18000001 11.264 0.465 0.20999999
0.145 11.28 0.465 0.54000002
0.13500001 14.676 0.54299998 0.30000001
0.074000001 11.229 0.46399999 0.14
0.039000001 11.143 0.46200001 0.28999999
0.0040000002 11.151 0.46200001 0.30000001
-0.032000002 11.199 0.463 0.40000001
-0.048999999 11.217 0.46399999 0.38999999
-0.085000001 11.261 0.465 0.33000001
-0.122 11.396 0.46799999 0.40000001
-0.162 11.634 0.47299999 0.31999999
-0.19499999 11.457 0.46900001 0.19
-0.23999999 11.848 0.47799999 0.27000001
-0.23999999 11.088 0.461 0.56999999
-0.28999999 11.633 0.47299999 0.2
-0.32300001 11.528 0.47099999 0.27000001
-0.373 11.945 0.47999999 0.31999999
-0.38299999 11.17 0.463 0.30000001
-0.41499999 11.099 0.461 0.28
-0.449 11.08 0.461 0.28
-0.46599999 11.073 0.461 0.55000001
-0.53899997 11.873 0.479 0.25999999
-0.69300002 14.165 0.53100002 0.20999999
-0.73500001 14.119 0.52999997 0.31999999
-0.84200001 15.219 0.55500001 0.23999999
-0.90399998 15.442 0.56099999 0.30000001
-0.88099998 14.311 0.53500003 0.46000001
-0.90200001 14.29 0.53399998 0.34
-0.745 11.326 0.46700001 0.25
-0.77200001 11.206 0.46399999 0.55000001
-1.158 15.908 0.57200003 0.18000001
-1.193 15.713 0.56699997 0.28
-1.2589999 15.922 0.57200003 0.28999999
-1.314 15.978 0.57300001 0.36000001
-1.339 15.97 0.57300001 0.36000001
-1.53 17.559 0.61000001 0.43000001
-1.3890001 15.413 0.56099999 0.23999999
-1.724 17.836 0.616 0.55000001
-1.528 15.336 0.55900002 0.20999999
-1.548 15.3 0.55900002 0.30000001
-1.592 15.251 0.55800003 0.52999997
-1.6339999 15.198 0.55599999 0.18000001
-1.676 15.141 0.55500001 0.31
-1.722 15.118 0.55500001 0.28999999
-1.753 14.974 0.55199999 0.56999999
-1.818 15.117 0.55500001 0.12
-2.177 17.599001 0.61199999 0.27000001
-2.1010001 16.778999 0.59299999 0.31999999
-2.158 16.804001 0.59399998 0.23
-2.2090001 16.787001 0.59399998 0.56
-1.825 13.574 0.51999998 0.2
-1.87 13.584 0.52100003 0.38
-1.918 13.62 0.52200001 0.46000001
-1.909 13.405 0.51700002 0.14
-1.951 13.395 0.51700002 0.38999999
-1.9809999 13.312 0.51499999 0.43000001
-2.0179999 13.276 0.514 0.44
-2.053 13.226 0.51300001 0.25999999
-1.7309999 10.951 0.461 0.20999999
-1.7869999 11.08 0.46399999 0.38
-2.2130001 13.549 0.52100003 0.23
-2.2019999 13.224 0.514 0.38
-1.842 10.878 0.46000001 0.28999999
-1.878 10.886 0.46000001 0.41
-1.916 10.898 0.46000001 0.25999999
-2.4619999 13.711 0.52600002 0.34999999
-3.2030001 17.482 0.61299998 0.19
-3.2 17.313999 0.60900003 0.079999998
-2.5079999 13.143 0.51300001 0.34
-2.3840001 12.29 0.493 0
-3.947 18.558001 0.63999999 0.15000001
-2.914 13.526 0.523 0.2
-2.9219999 13.361 0.51999998 0.57999998
-2.9590001 13.33 0.51899999 0.25
-4.0840001 18.087999 0.63099998 0.38999999
-4.0599999 17.851 0.625 0.14
-4.4159999 19.128 0.65499997 0.41
-4.4759998 19.114 0.65499997 0.17
-4.5359998 19.101999 0.65499997 0.31
-4.5869999 19.048 0.65499997 0.44
-3.9349999 15.921 0.58200002 0.55000001
-4.0430002 16.246 0.58999997 0
-4.0879998 16.208 0.58899999 0.059999999
-4.138 16.193001 0.58899999 0.11
-4.8860002 18.851999 0.65200001 0.31999999
-5.013 19.096001 0.65799999 0.34
-4.677 17.598 0.62300003 0.31999999
-4.223 15.799 0.58099997 0.30000001
-4.2550001 15.722 0.579 0.14
-4.2550001 15.529 0.57499999 0.2
-5.0009999 18.014 0.634 0.57999998
-5.0939999 18.129 0.63700002 0.23
-5.046 17.746 0.62800002 0.2
-5.1279998 17.82 0.63099998 0.36000001
-5.0949998 17.603001 0.62599999 0.23
-5.1690001 17.65 0.62699997 0.38999999
-5.4219999 18.296 0.64300001 0.28
-5.4559999 18.201 0.64099997 0
-5.5009999 18.143 0.63999999 0.13
-5.8189998 18.974001 0.66000003 0
-6.2680001 19.662001 0.67799997 0.18000001
-5.6999998 17.695999 0.63200003 0.20999999
-5.743 17.638 0.63099998 0.25999999
-6.4990001 19.74 0.68199998 0.16
-6.3779998 19.172001 0.66799998 0.57999998
-6.625 19.808001 0.68400002 0.19
-6.6890001 19.792999 0.68400002 0.16
-6.7350001 19.722 0.68300003 0.38
-6.7989998 19.707001 0.68300003 0.2
-6.8759999 19.729 0.68400002 0.52999997
-6.8800001 19.545 0.68000001 0.18000001
-6.9520001 19.552999 0.68099999 0.37
-6.987 19.554001 0.68099999 0.31999999
-7.04 19.509001 0.68099999 0.40000001
-7.1030002 19.490999 0.68099999 0.36000001
-7.237 19.665001 0.68599999 0
-7.1440001 19.228001 0.67500001 0.11
-7.2519999 19.149 0.67500001 0.30000001
-7.289 19.157 0.67500001 0.44999999
-7.3769999 19.205 0.67699999 0.27000001
-5.0929999 13.157 0.52999997 0.33000001
-5.1279998 13.126 0.52899998 0.41
-5.1690001 13.108 0.52899998 0.33000001
-5.2140002 13.103 0.52899998 0.47
-5.2449999 13.121 0.52999997 0.23999999
-5.296 13.128 0.53100002 0.61000001
-5.3590002 13.163 0.53200001 0.23
-7.6350002 18.559999 0.66500002 0.5
-6.941 16.73 0.62099999 0.23
-6.8829999 16.445 0.61400002 0.28999999
-6.9419999 16.441999 0.61500001 0.15000001
-7.0479999 16.618 0.61900002 0.25999999
-7.1059999 16.608999 0.62 0.55000001
-7.2399998 16.775999 0.62400001 0.28
-7.2449999 16.645 0.62199998 0.17
-7.0510001 16.062 0.60799998 0.34
-7.0900002 16.014 0.60699999 0.30000001
-7.6820002 17.201 0.63700002 0.27000001
-8.0930004 18.041 0.65899998 0.51999998
-8.0579996 17.815001 0.65399998 0.2
-7.8460002 17.202 0.639 0.23999999
-7.901 17.181 0.639 0.47999999
-8.0209999 17.157 0.63999999 0.47
-8.0760002 17.135 0.63999999 0.33000001
-8.026 16.959999 0.63599998 0.25999999
-7.2049999 15.108 0.58899999 0.36000001
-7.2220001 15.022 0.588 0.36000001
-7.2519999 14.965 0.58700001 0.31999999
-7.4260001 15.201 0.59399998 0.54000002
-8.2849998 16.816999 0.63499999 0.37
-8.3280001 16.773001 0.63499999 0.15000001
-8.1829996 16.417 0.62599999 0.17
-8.2469997 16.416 0.62699997 0.38999999
-8.4589996 16.576 0.63200003 0.28
-8.5410004 16.608 0.634 0.47999999
-8.6599998 16.709999 0.63700002 0
-8.5900002 16.448999 0.63099998 0
-8.4619999 16.143999 0.62300003 0.12
-7.2649999 13.658 0.56099999 0.34
-7.2709999 13.566 0.55900002 0.40000001
-7.3109999 13.54 0.55900002 0.34
-7.3449998 13.501 0.55800003 0.43000001
-7.4000001 13.501 0.55900002 0.34999999
-7.4190001 13.486 0.55900002 0.43000001
-7.461 13.461 0.55900002 0.33000001
-7.5339999 13.493 0.56 0.58999997
-6.8990002 12.18 0.52700001 0.34
-6.921 12.129 0.52600002 0.40000001
-6.9310002 12.102 0.52600002 0.47999999
-6.9650002 12.074 0.52600002 0.38
-7.0100002 12.064 0.52600002 0.38999999
-7.0450001 12.038 0.52600002 0.46000001
-7.0840001 12.018 0.52600002 0.44999999
-7.1430001 12.031 0.52700001 0.47999999
-7.257 12.136 0.52999997 0.2
-8.1829996 13.628 0.56999999 0.38999999
-8.21 13.577 0.56999999 0.34999999
-7.8699999 12.925 0.55299997 0.36000001
-7.8920002 12.871 0.55199999 0.43000001
-7.9400001 12.858 0.55199999 0.31999999
-8.0030003 12.869 0.55299997 0.58999997
-7.684 12.229 0.537 0.27000001
-7.6999998 12.171 0.53600001 0.43000001
-7.7329998 12.138 0.53600001 0.34
-7.7750001 12.119 0.53600001 0.46000001
-7.8200002 12.106 0.537 0.44
-8.4949999 13.056 0.56300002 0.25
-8.1780005 12.486 0.54799998 0.44999999
-8.1850004 12.453 0.54799998 0.31
-8.2069998 12.402 0.54699999 0.54000002
-8.2589998 12.395 0.54699999 0.30000001
-8.2989998 12.37 0.54799998 0.60000002
-8.4469995 12.506 0.55199999 0
-26.659 39.105 1.286 0.11
-26.636999 38.810001 1.28 0
-26.664 38.719002 1.279 0.1
-30.66 44.216 1.434 0.1
-30.767 44.075001 1.433 0.15000001
-30.902 43.973999 1.432 0
-28.278999 39.976002 1.324 0
-28.16 39.546001 1.314 0
-28.125 39.365002 1.3099999 0
-28.205999 39.217999 1.309 0
-28.253 39.023998 1.306 0.07
-11.158 15.337 0.63999999 0.14
-11.212 15.31 0.63999999 0
-31.823 43.089001 1.428 0.12
-11.323 15.209 0.63999999 0.31999999
-11.366 15.167 0.63999999 0.5
-11.423 15.046 0.639 0.49000001
-11.486 15.031 0.639 0.27000001
-11.483 14.93 0.63700002 0.30000001
-11.492 14.844 0.63599998 0.55000001
-11.522 14.834 0.63599998 0.15000001
-11.69 14.954 0.64099997 0.30000001
-11.613 14.76 0.63599998 0.31
-11.578 14.62 0.63300002 0.56999999
-11.776 14.774 0.639 0.15000001
-11.88 14.809 0.64099997 0.31
-11.89 14.726 0.639 0.38999999
-11.87 14.655 0.63800001 0.28
-11.925 14.628 0.63800001 0.18000001
-11.787 14.367 0.63200003 0.56999999
-11.871 14.378 0.63300002 0.13
-11.914 14.337 0.63300002 0.33000001
-12.128 14.502 0.639 0
-32.356998 38.376999 1.352 0
-32.320999 38.213001 1.348 0
-36.874001 43.313 1.5039999 0
-37.041 43.233002 1.505 0
-33.806 39.210999 1.387 0
-33.984001 39.167999 1.3890001 0
-33.909 38.834 1.382 0
-34.120998 38.831001 1.386 0
-34.825001 39.506001 1.408 0
-36.699001 41.367001 1.4680001 0
-34.882 39.073002 1.401 0
-39.397999 43.848999 1.551 0
-37.191002 41.132999 1.471 0
-36.323002 39.922001 1.438 0
-35.692001 38.983002 1.4119999 0
-35.487999 38.638 1.403 0
-35.766998 38.695999 1.408 0
-42.492001 45.676998 1.6289999 0
-36.633999 39.138 1.429 0
-36.573002 38.827999 1.423 0
-36.571999 38.583 1.419 0
-36.515999 38.403 1.415 0
-36.708 38.362999 1.418 0
-36.537998 37.946999 1.408 0
-36.712002 37.888 1.41 0
-36.667 37.605 1.405 0
-36.421001 37.118 1.393 0
-35.973999 36.433998 1.374 0
-36.470001 36.82 1.3890001 0
-36.654999 36.775002 1.391 0
-36.814999 36.703999 1.392 0
-35.516998 35.188999 1.347 0
-35.591 35.042 1.346 0.07
-35.667 34.896999 1.345 0.090000004
-35.574001 34.588001 1.3380001 0.079999998
-35.68 34.582001 1.34 0.079999998
-35.825001 34.505001 1.341 0.079999998
-36.036999 34.491001 1.344 0.079999998
-36.271 34.498001 1.348 0
-36.417 34.418999 1.35 0
-36.534 34.313 1.35 0
-36.591999 34.152 1.348 0
-36.597 34.049 1.347 0
-36.537998 33.780998 1.342 0
-36.599998 33.625 1.34 0
-36.687 33.493999 1.34 0
-23.302999 21.153 0.92500001 0.11
-23.268999 20.99 0.92199999 0.18000001
-23.204 20.799999 0.91799998 0
-23.715 21.056 0.93099999 0.15000001
-23.955999 21.136 0.93599999 0.15000001
-23.882999 20.938 0.93199998 0.18000001
-24.062 20.962 0.935 0.23999999
-23.200001 20.084999 0.90700001 0.14
-22.391001 19.263 0.88099998 0.38
-22.476999 19.275999 0.88300002 0.22
-22.431 19.114 0.87900001 0.31
-22.502001 19.052999 0.88 0.28999999
-22.620001 19.031 0.88200003 0.25
-22.632999 18.921 0.88 0.2
-22.722 18.874001 0.88099998 0.49000001
-22.885 18.948999 0.88499999 0.22
-23.016001 18.936001 0.88700002 0.27000001
-23.103001 18.886 0.88800001 0.16
-23.073999 18.742001 0.88499999 0.17
-23.452999 18.927 0.89499998 0.16
-16.986 13.63 0.704 0.28
-16.370001 13.052 0.685 0.15000001
-17.063999 13.56 0.70499998 0.18000001
-17.033001 13.449 0.70300001 0.54000002
-17.548 13.765 0.71600002 0.18000001
-17.068001 13.303 0.70099998 0.28999999
-16.101999 12.471 0.67199999 0.28
-16.124001 12.407 0.67199999 0.38
-16.274 12.441 0.67500001 0.25
-16.212 12.354 0.67299998 0.44
-16.719999 12.657 0.68599999 0.38
-16.677 12.542 0.68400002 0.16
-16.562 12.375 0.67900002 0.20999999
-16.993 12.613 0.69 0.38999999
-17.301001 12.758 0.69800001 0.19
-16.646999 12.196 0.67799997 0.28
-16.945999 12.373 0.68599999 0.2
-16.615 12.053 0.676 0.27000001
-16.667999 12.011 0.676 0.41
-17.302999 12.385 0.69300002 0.18000001
-16.214001 11.531 0.66100001 0.31999999
-16.242001 11.475 0.66100001 0.38
-16.413 11.518 0.66500002 0.25
-16.473 11.521 0.66600001 0.36000001
-16.507999 11.469 0.66600001 0.41
-16.622999 11.471 0.66799998 0.25
-16.642 11.407 0.66799998 0.34999999
-16.632999 11.325 0.667 0.34999999
-16.625999 11.243 0.66500002 0.28999999
-16.608999 11.194 0.66399997 0.38
-24.094 16.115 0.86799997 0.19
-16.785 11.16 0.667 0.20999999
-16.829 11.113 0.66799998 0.23
-16.808001 11.024 0.66600001 0.23999999
-16.719999 10.891 0.66299999 0.56999999
-16.933001 10.954 0.66799998 0.23999999
-23.323 15.024 0.83999997 0.23999999
-23.441999 14.997 0.84200001 0.18000001
-23.525999 14.947 0.84299999 0.46000001
-23.698 14.951 0.84600002 0.23
-23.711 14.856 0.84600002 0.2
-24.247 15.085 0.85900003 0.34
-24.538 15.159 0.86500001 0.22
-24.683001 15.194 0.86799997 0.17
-24.702999 15.1 0.86799997 0.14
-24.216999 14.699 0.85299999 0.46000001
-24.181999 14.575 0.85100001 0.25
-22.837 13.668 0.81400001 0.20999999
-22.832001 13.568 0.81300002 0.17
-24.292 14.382 0.85100001 0.13
-23.125 13.595 0.81900001 0.15000001
-23.142 13.507 0.81900001 0.16
-23.222 13.456 0.81999999 0.28999999
-23.309 13.409 0.82099998 0.28
-23.395 13.36 0.82200003 0.31999999
-23.409 13.271 0.82099998 0.34
-23.827 13.458 0.83200002 0.25
-24.775999 13.891 0.85500002 0.28
-25.077999 13.957 0.86199999 0.13
-25.033001 13.829 0.86000001 0.33000001
-23.903 13.108 0.829 0.20999999
-23.858999 12.987 0.82700002 0.28999999
-23.997 12.964 0.829 0.27000001
-24.128 12.986 0.83200002 0.13
-24.417999 13.043 0.83899999 0.44999999
-24.618 13.05 0.84299999 0.2
-26.691 14.039 0.89499998 0.13
-24.632 12.86 0.84100002 0.34999999
-24.795 12.846 0.84399998 0.17
-24.667999 12.682 0.83999997 0.33000001
-24.677 12.638 0.83999997 0.30000001
-24.745001 12.575 0.83999997 0.30000001
-27.223 13.616 0.90200001 0.19
-27.152 13.475 0.89899999 0.16
-26.823 13.207 0.889 0.28999999
-26.667999 13.027 0.884 0.2
-26.601 12.943 0.88200003 0.14
-27.086 13.073 0.89300001 0.25999999
-26.650999 12.76 0.88099998 0.20999999
-26.684 12.673 0.88099998 0.25
-27.052999 12.744 0.889 0.33000001
-27.570999 12.882 0.90100002 0.19
-27.41 12.702 0.89600003 0.13
-27.15 12.53 0.889 0.28
-27.464001 12.571 0.89600003 0.14
-27.798 12.618 0.90399998 0.13
-27.459999 12.361 0.89399999 0.13
-26.886999 12.002 0.87900001 0.28
-26.896999 11.905 0.87800002 0.27000001
-26.943001 11.875 0.87900001 0.22
-27.039 11.816 0.88 0.19
-27.117001 11.749 0.88099998 0.5
-27.514 11.818 0.88999999 0.16
-28 11.922 0.90100002 0.40000001
-28.039 11.835 0.90100002 0.25999999
-28.063 11.741 0.90100002 0.2
-27.393999 11.412 0.884 0.19
-27.288 11.267 0.88099998 0.25
-26.849001 10.988 0.86900002 0.33000001
-27.094999 10.989 0.87400001 0.12
-26.879 10.803 0.86799997 0
-29.07 11.576 0.921 0
-30.667 12.154 0.95999998 0.11
-27.108 10.649 0.87199998 0.22
-27.000999 10.509 0.86799997 0.2
-26.896 10.371 0.86500001 0.34
-28.629 10.934 0.90600002 0.14
-28.636999 10.834 0.90600002 0.18000001
-28.309 10.609 0.89700001 0.18000001
-28.136999 10.494 0.89200002 0.12
-27.701 10.233 0.88099998 0.17
-27.820999 10.178 0.88300002 0.46000001
-27.982 10.138 0.88599998 0.20999999
-28.084 10.075 0.88800001 0.16
-27.906 9.9119997 0.88300002 0.18000001
-27.941 9.8260002 0.88300002 0.16
-27.843 9.6929998 0.88 0.23999999
-27.885 9.6590004 0.88 0.28
-27.9 9.566 0.88 0.25
-27.892 9.4659996 0.87900001 0.25999999
-27.635 9.2819996 0.87199998 0.20999999
-29.653 9.8540001 0.92000002 0.2
-29.735001 9.7779999 0.921 0.40000001
-29.660999 9.7019997 0.91900003 0.25
-29.733999 9.6219997 0.92000002 0.25999999
-29.792 9.5380001 0.921 0.23999999
-29.424999 9.3190002 0.91100001 0.38
-29.384001 9.2049999 0.91000003 0.2
-29.142 9.0279999 0.903 0
-29.351 8.9919996 0.90700001 0
-41.172001 12.532 1.188 0.07
-41.133999 12.38 1.187 0.16
-41.308998 12.291 1.1900001 0
-41.445 12.19 1.192 0
-42.067001 12.229 1.206 0
-41.698002 11.98 1.196 0
-43.063 12.225 1.228 0
-41.341999 11.667 1.187 0
-41.084 11.455 1.1799999 0.12
-41.042 11.305 1.178 0.20999999
-41.272999 11.229 1.182 0.11
-41.478001 11.145 1.186 0.079999998
-41.723 11.07 1.191 0.19
-41.673 10.917 1.189 0
-41.694 10.852 1.1900001 0
-45.480999 11.683 1.278 0
-45.518002 11.54 1.278 0
-45.513 11.387 1.277 0
-45.536999 11.241 1.277 0
-45.547001 11.092 1.276 0
-45.578999 10.948 1.276 0
-45.486 10.85 1.273 0
-47.280998 11.121 1.3150001 0
-47.310001 10.971 1.314 0
-61.09 13.755 1.635 0
-47.798 10.61 1.323 0
-60.236 13.165 1.613 0
-59.396999 12.885 1.5930001 0
-59.609001 12.735 1.597 0
-59.661999 12.55 1.597 0
-58.803001 12.177 1.576 0
-58.811001 11.986 1.575 0
-58.874001 11.807 1.576 0
-58.868999 11.709 1.575 0
-59.171001 11.576 1.581 0
-59.209 11.39 1.582 0
-58.812 11.123 1.572 0
-59.348 11.031 1.5829999 0
-59.284 10.634 1.58 0
-59.530998 10.582 1.585 0
-59.849998 10.445 1.592 0
-59.707001 10.227 1.5880001 0
-59.457001 9.9919996 1.581 0
-67.050003 11.048 1.756 0
-63.285999 3.082 1.651 0
-63.382 2.8870001 1.653 0
-62.855 2.6659999 1.641 0
-63.125 2.4779999 1.647 0
-63.064999 2.3770001 1.646 0
-34.458 1.094 0.99299997 0.11
-34.423 0.98400003 0.99299997 0
-34.507999 0.87800002 0.99400002 0
-34.523998 0.76999998 0.995 0
-34.625999 0.71799999 0.99699998 0
-43.164001 0.75300002 1.192 0.07
-34.813 0.50300002 1.001 0.14
-34.853001 0.39399999 1.002 0.12
-34.858002 0.28400001 1.002 0.14
-32.955002 0.167 0.95899999 0.13
-33.058998 0.063000001 0.96100003 0.14
-33.154999 0.011 0.963 0
-33.272999 -0.093000002 0.96600002 0.16
-33.264999 -0.198 0.96600002 0.20999999
-33.141998 -0.301 0.963 0.2
-32.969002 -0.403 0.95899999 0
-31.045 -0.57300001 0.91500002 0.27000001
-30.992001 -0.62099999 0.91399997 0.34999999
-30.98 -0.71799999 0.91399997 0.22
-31.065001 -0.81699997 0.91600001 0.49000001
-32.138 -0.94800001 0.94099998 0.2
-32.152 -1.049 0.94099998 0
-31.028 -1.109 0.91500002 0.12
-30.183001 -1.173 0.89600003 0.16
-25.066 -1.0880001 0.77999997 0.58999997
-24.962 -1.1619999 0.77700001 0.75
-25.073999 -1.2460001 0.77999997 0.62
-24.721001 -1.306 0.77200001 0.2
-30.195999 -1.697 0.89700001 0.22
-30.141001 -1.789 0.89600003 0.52999997
-33.077999 -2.017 0.963 0.11
-33.507999 -2.1500001 0.97299999 0
-33.853001 -2.279 0.98100001 0
-33.833 -2.3840001 0.98100001 0.039999999
-33.591999 -2.473 0.97500002 0
-33.339001 -2.5599999 0.97000003 0
-33.395 -2.6700001 0.97100002 0
-33.650002 -2.743 0.977 0
-33.522999 -2.839 0.97500002 0.07
-33.419998 -2.9360001 0.972 0
-66.786003 -6.105 1.7359999 0
-66.619003 -6.3010001 1.732 0
-67.417 -6.5900002 1.751 0
-66.746002 -6.6300001 1.7359999 0
-68.170998 -6.9889998 1.7690001 0
-67.977997 -7.1849999 1.765 0
-67.607002 -7.3600001 1.757 0
-68.502998 -7.6760001 1.778 0
-68.703003 -7.9169998 1.783 0
-69.154999 -8.1899996 1.794 0
-47.050999 -5.789 1.288 0
-46.723 -5.8969998 1.281 0
-46.837002 -6.0609999 1.284 0
-47.001999 -6.2329998 1.288 0
-46.976002 -6.3800001 1.288 0
-46.313 -6.4369998 1.273 0.090000004
-20.862 -2.9860001 0.68800002 0.25
-20.752001 -3.036 0.68599999 0.43000001
-20.679001 -3.092 0.68400002 0.34
-20.629 -3.151 0.68400002 0.38999999
-20.611 -3.214 0.68300003 0.34999999
-20.621 -3.2820001 0.68400002 0.31999999
-20.636999 -3.3180001 0.68400002 0.5
-20.889 -3.4260001 0.69 0
-44.747002 -8.3109999 1.245 0
-44.667 -8.4420004 1.244 0
-44.026001 -8.4639997 1.229 0.090000004
-43.666 -8.5369997 1.222 0.23
-43.541 -8.6540003 1.219 0.11
-43.513 -8.7910004 1.219 0.16
-43.554001 -8.8699999 1.221 0.11
-27.790001 -5.7410002 0.85500002 0.090000004
-27.76 -5.8260002 0.85399997 0
-43.909 -9.375 1.2309999 0.12
-28.52 -6.1739998 0.87300003 0.18000001
-28.014 -6.1560001 0.86199999 0.25999999
-27.299999 -6.0430002 0.84500003 0.20999999
-28.806 -6.473 0.88099998 0.25999999
-28.209 -6.4310002 0.86699998 0.16
-28.097 -6.4990001 0.86500001 0
-9.7119999 -2.293 0.43599999 0.22
-9.6929998 -2.3210001 0.435 0.31999999
-9.684 -2.335 0.435 0.25
-9.5889997 -2.3440001 0.433 0.55000001
-9.7159996 -2.4070001 0.43599999 0.13
-28.16 -7.1220002 0.87 0
-42.092999 -10.801 1.198 0.07
-42.037998 -10.927 1.198 0.18000001
-18.080999 -4.776 0.634 0.31
-18.016001 -4.8189998 0.63300002 0.34999999
-17.954 -4.8629999 0.63200003 0.41
-17.934999 -4.9180002 0.63200003 0.40000001
-17.927 -4.9770002 0.63200003 0.34
-17.908001 -5.0320001 0.63200003 0.44
-17.921 -5.066 0.63200003 0.34999999
-17.989 -5.1469998 0.634 0.55000001
-18.056 -5.2270002 0.63599998 0.19
-25.447001 -7.4650002 0.81199998 0.41
-25.224001 -7.4850001 0.80800003 0.22
-25.357 -7.612 0.81099999 0.22
-24.985001 -7.585 0.80299997 0.38999999
-24.899 -7.6020002 0.801 0.23999999
-24.861 -7.6760001 0.801 0.44
-28.975 -9.0500002 0.89999998 0.19
-27.917999 -8.8149996 0.875 0.14
-24.851999 -7.9310002 0.80199999 0.25
-24.778 -7.993 0.801 0.30000001
-24.750999 -8.0699997 0.801 0.20999999
-24.771999 -8.1199999 0.80199999 0.50999999
-28.986 -9.6070004 0.90399998 0.23999999
-24.858999 -8.3219995 0.80500001 0.23
-24.895 -8.4209995 0.80699998 0.27000001
-28.775 -9.8380003 0.90100002 0.25999999
-28.458 -9.8299999 0.89399999 0
-24.989 -8.7159996 0.81099999 0.12
-24.400999 -8.5539999 0.79699999 0.25999999
-24.375999 -8.6309996 0.79699999 0.25999999
-24.268 -8.6780005 0.79500002 0.27000001
-24.174999 -8.7309999 0.79400003 0.37
-24.077999 -8.7810001 0.792 0.25
-23.985001 -8.8330002 0.79000002 0.23
-23.893 -8.8839998 0.78899997 0.43000001
-23.933001 -8.9420004 0.79000002 0.22
-23.726999 -8.9499998 0.78600001 0.31999999
-23.641001 -9.0019999 0.78399998 0.31
-23.327999 -8.967 0.77700001 0.17
-23.407 -9.0819998 0.77999997 0.19
-23.228001 -9.0959997 0.77600002 0.17
-24.209 -9.5249996 0.801 0.20999999
-24.149 -9.5889997 0.80000001 0.23
-24.136999 -9.6730003 0.801 0.38
-24.132999 -9.7589998 0.801 0.31999999
-25.353001 -10.347 0.83200002 0.30000001
-24.368 -10.033 0.80800003 0.2
-24.283001 -10.088 0.80699998 0.31
-24.285999 -10.133 0.80800003 0.40000001
-24.556 -10.337 0.815 0.23
-24.063 -10.218 0.80400002 0.28999999
-24.02 -10.289 0.80299997 0.28
-24.077999 -10.404 0.80599999 0.2
-24.164 -10.531 0.80900002 0.50999999
-24.556999 -10.795 0.81900001 0.2
-24.152 -10.662 0.81 0.14
-24.934999 -11.102 0.82999998 0.16
-24.761 -11.118 0.82599998 0.25
-23.066 -10.442 0.78500003 0.22
-22.955 -10.479 0.78299999 0.34
-22.768999 -10.48 0.77899998 0.27000001
-22.82 -10.591 0.78100002 0.46000001
-24.059999 -11.214 0.81300002 0.23999999
-23.886999 -11.225 0.80900002 0.34
-25.066999 -11.877 0.83999997 0.18000001
-25.004999 -11.944 0.83899999 0.43000001
-24.985001 -12.031 0.83999997 0.20999999
-24.247999 -11.769 0.82200003 0.22
-24.466 -11.97 0.829 0.38999999
-24.476999 -12.023 0.829 0.22
-24.42 -12.09 0.829 0.14
-24.280001 -12.116 0.82599998 0.34
-24.361 -12.253 0.829 0.17
-24.242001 -12.288 0.82700002 0.16
-24.118 -12.321 0.82499999 0.18000001
-23.440001 -12.113 0.80900002 0.38
-23.381001 -12.176 0.80900002 0.23
-23.141001 -12.143 0.80299997 0
-29.750999 -15.98 0.977 0.16
-22.274 -12.001 0.78500003 0.36000001
-22.122 -12.009 0.78200001 0.23999999
-20.969 -11.467 0.75300002 0.23
-20.983999 -11.561 0.75400001 0.34
-20.923 -11.613 0.75300002 0.23999999
-20.829 -11.647 0.75199997 0.19
-22.684 -12.781 0.801 0.16
-29.113001 -16.472 0.97000003 0.30000001
-28.837 -16.434999 0.96399999 0
-20.353001 -11.676 0.74299997 0
-20.378 -11.776 0.74400002 0
-20.325001 -11.831 0.74400002 0.039999999
-22.257999 -13.052 0.796 0.11
-22.076 -13.039 0.792 0
-23.655001 -14.124 0.83600003 0.16
-21.570999 -12.969 0.78200001 0.20999999
-21.535 -13.04 0.78200001 0.23
-21.479 -13.098 0.78100002 0.30000001
-21.473 -13.188 0.78200001 0.38999999
-21.561001 -13.289 0.78500003 0.23999999
-21.538 -13.368 0.78600001 0.28999999
-21.398001 -13.374 0.78299999 0.18000001
-21.344999 -13.435 0.78299999 0.15000001
-21.278999 -13.487 0.78200001 0.18000001
-22.955 -14.652 0.829 0.27000001
-22.895 -14.716 0.82800001 0.22
-20.659 -13.321 0.76800001 0.23
-20.686001 -13.431 0.76999998 0.31999999
-20.826 -13.615 0.77499998 0.16
-20.604 -13.563 0.76999998 0
-20.554001 -13.715 0.77100003 0
-53.278999 -35.846001 1.671 0
-53.125 -35.862999 1.668 0
-52.921001 -35.967999 1.666 0
-52.797001 -36.125999 1.665 0
-52.810001 -36.379002 1.669 0
-52.793999 -36.612999 1.6720001 0
-52.320999 -36.528999 1.6619999 0
-51.971001 -36.528 1.655 0
-52.215 -36.823002 1.664 0
-53.285999 -37.830002 1.697 0
-52.791 -37.728001 1.686 0
-52.591 -37.835999 1.684 0
-52.466 -37.995998 1.684 0
-52.519001 -38.286999 1.689 0
-52.431999 -38.476002 1.6900001 0
-52.499001 -38.652 1.693 0
-52.405998 -38.838001 1.694 0
-52.273998 -38.995998 1.694 0
-52.195 -39.192001 1.6950001 0
-52.312 -39.537998 1.702 0
-52.472 -39.918999 1.71 0
-52.432999 -40.02 1.711 0
-52.490002 -40.324001 1.716 0
-52.535 -40.622002 1.721 0
-52.537998 -40.889 1.725 0
-52.464001 -41.097 1.726 0
-52.68 -41.534 1.7359999 0
-52.564999 -41.712002 1.737 0
-52.876999 -42.095001 1.748 0
-53.342999 -42.741001 1.765 0
-53.372002 -43.040001 1.77 0
-54.101002 -44.192001 1.799 0
-55.321999 -45.772999 1.844 0
-55.234001 -45.848 1.8430001 0
-36.772999 -30.905001 1.302 0
-57.582001 -49.66 1.9400001 0
-57.532001 -49.776001 1.941 0
-57.305 -49.894001 1.939 0
-47.620998 -41.721001 1.65 0
-56.882 -50.158001 1.936 0
-56.771999 -50.379002 1.937 0
-56.618 -50.561001 1.937 0
-47.299 -42.367001 1.655 0
-56.834 -51.237 1.951 0
-56.609001 -51.358002 1.949 0
-56.411999 -51.502998 1.948 0
-25.461 -23.521 0.99800003 0.11
-25.389 -23.603001 0.99800003 0
-24.486 -22.834 0.97100002 0
-25.219999 -23.669001 0.99599999 0
-25.246 -23.993 1.002 0.039999999
-25.188 -24.089001 1.002 0.14
-20.124001 -19.360001 0.84399998 0.15000001
-20.073 -19.433001 0.84500003 0.18000001
-25.021999 -24.309999 1.003 0.090000004
-24.936001 -24.379 1.003 0.15000001
-24.629 -24.229 0.995 0.16
-23.392 -23.157 0.958 0.23999999
-23.295 -23.205999 0.95700002 0.27000001
-24.656 -24.718 1.003 0
-24.764 -24.983 1.0089999 0.11
-24.75 -25.048 1.01 0
-24.393999 -24.843 1.001 0.090000004
-24.127001 -24.726 0.995 0.13
-23.969 -24.718 0.99199998 0
-22.66 -23.514 0.95200002 0.07
-24.500999 -25.587999 1.015 0
-23.938 -25.077999 0.99800003 0
-23.219999 -24.632 0.97899997 0.20999999
-23.172001 -24.737 0.98000002 0.23
-23.458 -25.201 0.99199998 0.1
-23.278 -25.166 0.98900002 0.15000001
-23.08 -25.108999 0.98500001 0.12
-23.027 -25.131001 0.98500001 0.15000001
-23.054001 -25.32 0.98799998 0.1
-22.976 -25.393999 0.98799998 0
-22.961 -25.539 0.99000001 0.11
-22.688 -25.393999 0.98400003 0
-22.660999 -25.525 0.986 0.12
-22.607 -25.625999 0.98699999 0.16
-22.5 -25.584999 0.98400003 0.23
-22.455999 -25.698 0.986 0.11
-22.426001 -25.827 0.98699999 0.14
-22.098 -25.611 0.97899997 0
-21.924 -25.570999 0.97500002 0.059999999
-22.030001 -25.858999 0.98199999 0.12
-21.957001 -25.938 0.98199999 0
-21.922001 -25.98 0.98299998 0
-21.820999 -26.025 0.98199999 0
-50.860001 -61.102001 2.0190001 0
-27.507999 -33.994999 1.204 0
-27.452 -34.145 1.206 0
-27.052 -33.863998 1.1950001 0
-27.167999 -34.451 1.2079999 0
-26.693001 -34.069 1.194 0
-26.594 -34.051998 1.192 0
-26.931 -34.708 1.209 0
-26.622999 -34.534 1.201 0
-26.482 -34.576 1.2 0
-26.295 -34.556 1.197 0
-26.283001 -34.765999 1.201 0
-26.358999 -35.096001 1.2079999 0
-35.867001 -47.928001 1.572 0
-35.743 -48.075001 1.573 0
-39.999001 -54.519001 1.748 0
-41.502998 -56.944 1.813 0
-40.206001 -55.897999 1.777 0
-37.730999 -52.629002 1.683 0
-37.515999 -52.676998 1.681 0
-37.314999 -52.743999 1.6799999 0
-37.103001 -52.796001 1.678 0
-36.964001 -52.952 1.679 0
-39.164001 -56.483002 1.774 0
-39.237 -56.779999 1.78 0
-39.310001 -57.655998 1.798 0
-39.074001 -57.698002 1.795 0
-35.305 -52.841 1.656 0
-35.155998 -52.978001 1.656 0
-34.625 -52.715 1.645 0
-34.536999 -52.942001 1.648 0
-36.233002 -55.928001 1.726 0
-34.215 -53.176998 1.648 0
-34.106998 -53.376999 1.651 0
-33.875999 -53.569 1.652 0
-33.710999 -53.68 1.652 0
-33.546001 -53.792999 1.652 0
-33.460999 -54.034 1.656 0
-32.744999 -53.249001 1.632 0
-32.706001 -53.563999 1.638 0
-32.561001 -53.703999 1.6390001 0
-32.631001 -54.012001 1.646 0
-32.473999 -54.133999 1.646 0
-32.361 -54.332001 1.649 0
-32.119999 -54.314999 1.645 0
-32.113998 -54.696999 1.653 0
-32.519001 -55.789001 1.679 0
-32.035999 -55.159 1.661 0
-33.223 -58.466 1.74 0
-32.862 -58.257 1.732 0
-32.463001 -58.403 1.73 0
-32.589001 -58.847 1.74 0
-32.528 -59.175999 1.7460001 0
-32.342999 -59.278999 1.7460001 0
-32.271 -59.591999 1.752 0
-13.498 -25.955999 0.875 0.15000001
-12.678 -24.754999 0.84200001 0.50999999
-12.725 -25.041 0.84799999 0.22
-12.797 -25.381001 0.85600001 0.25
-12.179 -24.247999 0.82599998 0.27000001
-12.118 -24.316999 0.82700002 0.15000001
-12.019 -24.308001 0.82599998 0.36000001
-12.135 -24.739 0.83600003 0.17
-11.964 -24.584 0.83099997 0.30000001
-11.838 -24.521 0.82800001 0.31999999
-11.704 -24.341 0.82300001 0.23999999
-11.542 -24.197001 0.81900001 0.31
-11.451 -24.202999 0.81800002 0.13
-11.361 -24.209999 0.81699997 0.31999999
-11.327 -24.334 0.81999999 0.18000001
-11.228 -24.32 0.81800002 0.33000001
-11.115 -24.275999 0.81599998 0.27000001
-11.051 -24.237 0.815 0.28999999
-10.98 -24.284 0.815 0.23
-10.937 -24.391001 0.81699997 0.27000001
-10.78 -24.246 0.81300002 0.31999999
-10.726 -24.33 0.81400001 0.23
-10.59 -24.226 0.81 0.33000001
-10.547 -24.231001 0.81 0.34999999
-10.474 -24.274 0.81 0.2
-10.423 -24.365 0.81199998 0.30000001
-10.344 -24.392 0.81199998 0.37
-11.506 -27.379 0.88499999 0
-11.002 -26.643999 0.86500001 0.16
-10.969 -26.684 0.86500001 0.17
-10.951 -26.879 0.86900002 0.16
-10.878 -26.943001 0.87 0.25
-10.804 -27.003 0.87099999 0.20999999
-10.696 -26.979 0.86900002 0
-10.669 -27.16 0.87300003 0.14
-10.177 -26.146 0.847 0.17
-10.117 -26.113001 0.84600002 0.19
-10.006 -26.07 0.84399998 0.52999997
-9.9779997 -26.242001 0.84799999 0
-26.59 -70.724998 1.929 0
-10.145 -27.462 0.875 0.18000001
-10.048 -27.464001 0.87400001 0.25
-10.051 -27.606001 0.87699997 0.34
-9.8929996 -27.438999 0.87300003 0
-9.8599997 -27.618999 0.87599999 0
-9.7790003 -27.669001 0.87699997 0
-9.7489996 -28.289 0.88999999 0.1
-9.6230001 -28.209999 0.88700002 0.31
-9.3549995 -27.708 0.87400001 0.2
-9.2060003 -27.552999 0.87 0
-14.662 -44.393002 1.273 0
-9.0699997 -27.724001 0.87300003 0
-8.8719997 -27.556999 0.86799997 0
-8.7720003 -27.541 0.86699998 0
-14.073 -44.726002 1.276 0
-14.118 -45.366001 1.29 0
-14.057 -45.674999 1.2970001 0
-5.6389999 -18.687 0.653 0.18000001
-5.572 -18.569 0.64999998 0.30000001
-5.4879999 -18.5 0.648 0.37
-5.4130001 -18.462 0.64600003 0.34
-5.3439999 -18.438 0.64499998 0.31999999
-5.276 -18.422001 0.64499998 0.28999999
-5.2090001 -18.403999 0.64399999 0.41999999
-5.1469998 -18.405001 0.64399999 0.31
-5.1110001 -18.388 0.64300001 0.46000001
-5.0500002 -18.392 0.64300001 0.34999999
-4.9949999 -18.417999 0.64300001 0.38
-4.9439998 -18.462 0.64399999 0.37
-4.8959999 -18.514999 0.64399999 0.43000001
-4.8540001 -18.591999 0.64600003 0.38
-4.9050002 -18.910999 0.653 0.38999999
-4.862 -18.988001 0.65499997 0.44999999
-4.2410002 -16.996 0.60699999 0.50999999
-4.2280002 -17.174999 0.611 0
-6.9809999 -28.825001 0.884 0
-6.7249999 -28.15 0.86699998 0.15000001
-4.0120001 -16.867001 0.60299999 0.12
-3.9860001 -16.992001 0.60600001 0.18000001
-3.961 -17.129 0.60900003 0.60000002
-3.9649999 -17.396999 0.61500001 0.27000001
-6.5879998 -29.413 0.89499998 0.27000001
-6.5359998 -29.618999 0.89899999 0.20999999
-3.6830001 -16.891001 0.602 0.12
-3.6300001 -16.775 0.59899998 0.25
-3.573 -16.763 0.59899998 0.41
-3.516 -16.753 0.59799999 0.36000001
-3.4300001 -16.603001 0.59399998 0.56999999
-5.881 -29.021999 0.88300002 0.2
-5.8039999 -29.113001 0.884 0.18000001
-5.895 -30.066 0.90600002 0.27000001
-5.8439999 -30.055 0.90600002 0.20999999
-5.5970001 -29.27 0.88700002 0.13
-5.48 -29.158001 0.884 0.14
-5.4310002 -29.934999 0.90100002 0.38999999
-5.329 -29.907 0.89999998 0.18000001
-2.661 -15.276 0.56099999 0.36000001
-2.6170001 -15.308 0.56199998 0.38999999
-5.006 -29.999001 0.90100002 0.13
-4.9289999 -30.121 0.903 0.14
-4.829 -30.101 0.903 0.17
-4.756 -30.254 0.90600002 0.23
-4.6300001 -30.385 0.90799999 0.16
-4.6360002 -31.084 0.92400002 0.18000001
-4.441 -30.43 0.90899998 0.13
-4.507 -31.584 0.935 0.28
-4.4169998 -31.660999 0.93599999 0.18000001
-4.4780002 -32.48 0.95499998 0.2
-4.3730001 -32.470001 0.954 0
-4.3070002 -32.757 0.96100003 0
-1.0319999 -25.900999 0.79900002 0.15000001
-0.99000001 -25.860001 0.79799998 0.38999999
-0.91500002 -26.059 0.80199999 0
-0.82800001 -25.870001 0.79799998 0
3.1960001 -72.488998 1.8609999 0
3.641 -72.257004 1.8559999 0
4.0770001 -71.919998 1.849 0
3.8510001 -56.932999 1.508 0
4.0430002 -57.118 1.512 0
4.316 -54.860001 1.462 0
4.7350001 -57.842999 1.53 0
4.7950001 -56.41 1.498 0
4.8299999 -54.785 1.461 0
5.119 -56.042 1.49 0
5.3319998 -56.417999 1.499 0
5.1220002 -52.451 1.409 0
5.2420001 -52.828999 1.4170001 0
5.4770002 -53.481998 1.433 0
5.6799998 -53.794998 1.4400001 0
5.8109999 -53.426998 1.432 0
5.967 -53.299 1.4299999 0
6.1160002 -53.126999 1.426 0
6.2670002 -52.974998 1.423 0
6.3660002 -53.094002 1.426 0
6.4099998 -52.081001 1.403 0.059999999
6.5739999 -52.063 1.403 0.14
6.7550001 -52.179001 1.4069999 0
6.9229999 -52.187 1.4069999 0
7.1490002 -52.618999 1.418 0
7.2210002 -52.528 1.416 0
7.2649999 -51.650002 1.396 0
7.4180002 -51.562 1.395 0
7.7129998 -52.442001 1.416 0
7.8249998 -52.068001 1.4069999 0
7.9239998 -51.622002 1.398 0
8.0279999 -51.229 1.3890001 0
8.2910004 -52.362 1.416 0
8.5170002 -52.719002 1.425 0
8.7110004 -52.861 1.428 0
8.9300003 -53.148998 1.436 0
9.1450005 -53.400002 1.442 0
9.507 -53.007999 1.4349999 0
9.6540003 -52.872002 1.432 0
9.8290005 -52.891998 1.434 0.029999999
6.7059999 -35.511002 1.031 0.16
6.7690001 -35.236 1.025 0.25
6.8800001 -35.219002 1.026 0.28999999
6.9429998 -35.244999 1.026 0.28
7.0580001 -35.247002 1.027 0.28999999
7.1760001 -35.259998 1.028 0.28
7.2940001 -35.27 1.029 0.28999999
7.4130001 -35.285999 1.029 0.28
7.5300002 -35.292 1.03 0.30000001
7.6469998 -35.298 1.031 0.28
7.711 -35.323002 1.0319999 0.28999999
7.8309999 -35.339001 1.033 0.28
7.9499998 -35.354 1.034 0.28999999
8.0690002 -35.362 1.034 0.28999999
8.1920004 -35.389 1.036 0.28999999
8.3100004 -35.389999 1.036 0.28999999
8.375 -35.417999 1.0369999 0.28999999
8.4969997 -35.436001 1.038 0.28999999
8.6199999 -35.456001 1.039 0.27000001
8.7399998 -35.465 1.04 0.30000001
8.8640003 -35.486 1.041 0.25999999
8.9809999 -35.479 1.0420001 0.18000001
9.1070004 -35.507 1.043 0.43000001
9.1709995 -35.526001 1.044 0.25
9.2980003 -35.555 1.045 0.23
9.4130001 -35.539001 1.046 0.18000001
9.5419998 -35.573002 1.0470001 0.43000001
9.6619997 -35.574001 1.048 0.23999999
9.7840004 -35.582001 1.049 0.19
9.9139996 -35.613998 1.05 0.41999999
9.9790001 -35.632999 1.051 0.23999999
10.1 -35.632999 1.052 0.18000001
10.23 -35.666 1.053 0.41
10.354 -35.674 1.054 0.23999999
10.476 -35.675999 1.0549999 0.2
10.606 -35.700001 1.057 0.41999999
10.728 -35.701 1.057 0.23
10.8 -35.737999 1.059 0.16
10.927 -35.75 1.0599999 0.15000001
11.054 -35.763 1.061 0.17
11.183 -35.783001 1.062 0.22
11.31 -35.793999 1.063 0.27000001
11.433 -35.790001 1.064 0.15000001
8.8240004 -27.495001 0.866 0.34
8.9049997 -27.450001 0.866 0.30000001
11.756 -35.827 1.067 0.18000001
11.894 -35.868 1.069 0.41
9.4259996 -28.148001 0.884 0.20999999
9.4879999 -28.039 0.88200003 0.25
9.5690002 -27.99 0.88200003 0.34
9.6110001 -27.969 0.88200003 0.23
9.6920004 -27.917999 0.88099998 0.43000001
12.617 -35.955002 1.076 0.22
12.743 -35.952999 1.077 0.16
12.88 -35.98 1.079 0.41999999
13.009 -35.983002 1.08 0.22
8.5740004 -23.396 0.77600002 0.38999999
8.5769997 -23.181999 0.77100003 0.18000001
13.482 -36.047001 1.085 0.17
13.62 -36.07 1.086 0.38999999
13.757 -36.089001 1.0880001 0.22
13.887 -36.09 1.089 0.18000001
13.969 -36.133999 1.091 0.38999999
14.099 -36.130001 1.092 0.23
14.236 -36.146 1.0930001 0.18000001
14.376 -36.167 1.095 0.40000001
14.516 -36.187 1.096 0.23
14.643 -36.174999 1.097 0.18000001
14.785 -36.199001 1.099 0.38999999
14.865 -36.230999 1.1 0.23
15.004 -36.244999 1.102 0.18000001
15.144 -36.259998 1.103 0.38999999
15.279 -36.262001 1.105 0.19
15.424 -36.287998 1.1059999 0.25999999
15.558 -36.286999 1.108 0.2
15.622 -36.277 1.108 0.16
15.673 -36.084999 1.104 0.43000001
15.705 -35.851002 1.1 0.14
15.788 -35.733002 1.098 0.38999999
15.931 -35.752998 1.1 0.18000001
16.061001 -35.741001 1.101 0.37
16.198999 -35.749001 1.102 0.20999999
16.215 -35.633999 1.1 0
16.368 -35.674 1.102 0
16.452999 -34.702999 1.0829999 0.059999999
16.002001 -33.480999 1.053 0.2
15.986 -33.313 1.05 0.28999999
16.024 -33.125999 1.046 0.27000001
16.052999 -32.921001 1.0420001 0.28999999
16.084999 -32.724998 1.039 0.27000001
16.114 -32.526001 1.035 0.27000001
16.15 -32.345001 1.0319999 0.27000001
16.181999 -32.153999 1.028 0.28
16.152 -31.969999 1.024 0.28999999
16.183001 -31.784 1.021 0.25
14.677 -28.608 0.94099998 0.30000001
14.71 -28.452 0.93800002 0.30000001
14.735 -28.283001 0.935 0.30000001
14.763 -28.122 0.93199998 0.31
14.737 -27.966 0.92799997 0.31999999
14.764 -27.805 0.92500001 0.31
9.2349997 -17.153 0.65200001 0.54000002
7.1139998 -13.126 0.54799998 0.61000001
14.848 -27.135 0.91299999 0.22
14.843 -27.024 0.91100001 0.34
14.865 -26.865999 0.90799999 0.34
14.888 -26.709 0.90499997 0.28999999
14.91 -26.552 0.90200001 0.34999999
14.938 -26.408001 0.89899999 0.34
14.957 -26.247999 0.89600003 0.28999999
14.984 -26.105 0.89399999 0.36000001
14.97 -25.986 0.89099997 0.30000001
14.987 -25.827 0.88800001 0.36000001
15.009 -25.68 0.88599998 0.31
15.037 -25.542999 0.88300002 0.36000001
15.055 -25.391001 0.88099998 0.30000001
15.076 -25.245001 0.87800002 0.31999999
15.101 -25.108999 0.87599999 0.31999999
15.082 -24.988001 0.87300003 0.34
15.102 -24.844 0.87 0.30000001
15.139 -24.73 0.86900002 0.47
15.143 -24.563999 0.866 0.25999999
15.2 -24.483999 0.86500001 0.30000001
15.305 -24.48 0.866 0.33000001
15.328 -24.347 0.86400002 0.30000001
15.384 -24.35 0.86400002 0.30000001
15.502 -24.367001 0.866 0.34
15.617 -24.379 0.86799997 0.33000001
15.724 -24.377001 0.86900002 0.30000001
15.844 -24.393999 0.87099999 0.30000001
15.92 -24.343 0.87099999 0.34
15.961 -24.323 0.87099999 0.31
16.076 -24.330999 0.87199998 0.30000001
16.193001 -24.34 0.87400001 0.30000001
16.315001 -24.357 0.87599999 0.30000001
16.424 -24.354 0.87699997 0.31999999
16.497999 -24.299 0.87699997 0.17
8.8070002 -12.905 0.56400001 0.18000001
9.9099998 -14.467 0.60799998 0.47
9.9250002 -14.393 0.60600001 0.44
9.7030001 -13.885 0.59399998 0.56999999
9.6850004 -13.766 0.59200001 0.22
9.6260004 -13.592 0.588 0.23
9.6300001 -13.508 0.58600003 0.60000002
9.6610003 -13.506 0.58600003 0.27000001
17.511 -24.283001 0.88999999 0.28999999
17.632999 -24.291 0.89200002 0.30000001
17.686001 -24.205 0.89099997 0.28999999
17.792 -24.188999 0.89200002 0.30000001
17.924 -24.209 0.89399999 0.27000001
18.011 -24.247 0.89600003 0.25999999
9.9569998 -13.249 0.58600003 0.57999998
9.9320002 -13.13 0.583 0.16
10.089 -13.25 0.588 0
18.347 -23.905001 0.89499998 0
18.358 -23.764999 0.89200002 0
18.333 -23.656 0.88999999 0
18.347 -23.521 0.88800001 0
18.370001 -23.399 0.88599998 0
18.391001 -23.275 0.884 0
18.408001 -23.146999 0.88200003 0
18.424999 -23.018999 0.88 0.050000001
18.437 -22.886 0.87800002 0.079999998
18.438999 -22.815001 0.87599999 0.14
18.292999 -22.49 0.86900002 0.28
18.319 -22.379 0.86699998 0.28999999
18.355 -22.278999 0.866 0
18.347 -22.128 0.86299998 0
18.365 -22.009001 0.861 0
18.351 -21.921 0.85900003 0
18.365 -21.799999 0.85699999 0.050000001
8.6610003 -10.107 0.51099998 0.55000001
8.698 -10.086 0.51200002 0.43000001
8.8140001 -10.155 0.51499999 0.28999999
8.7600002 -10.062 0.51200002 0.47
8.9700003 -10.237 0.51800001 0.22
8.8649998 -10.054 0.514 0.41
8.8929996 -10.022 0.51300001 0.38999999
8.974 -10.049 0.51499999 0.44999999
10.286 -11.44 0.55900002 0.25
10.253 -11.367 0.55699998 0.5
10.271 -11.316 0.55599999 0.31
10.302 -11.279 0.55599999 0.28999999
10.297 -11.203 0.55500001 0.51999998
10.314 -11.151 0.55400002 0.28
10.323 -11.091 0.55299997 0.38
10.325 -11.024 0.55199999 0.47
10.322 -10.986 0.55199999 0.28
10.332 -10.927 0.551 0.44999999
10.331 -10.858 0.55000001 0.43000001
10.345 -10.804 0.54900002 0.23999999
10.348 -10.74 0.54799998 0.52999997
10.351 -10.676 0.54699999 0.38
10.379 -10.638 0.54699999 0.20999999
10.352 -10.577 0.54500002 0.54000002
10.352 -10.51 0.54400003 0.34999999
10.373 -10.466 0.54400003 0.27000001
10.369 -10.397 0.54299998 0.47999999
10.374 -10.336 0.542 0.38999999
10.39 -10.288 0.54100001 0.25999999
10.378 -10.244 0.54000002 0.5
10.383 -10.185 0.54000002 0.38999999
10.408 -10.145 0.53899997 0.25
10.408 -10.082 0.53799999 0.5
10.409 -10.02 0.537 0.40000001
10.435 -9.9820004 0.537 0.23
10.427 -9.9119997 0.53600001 0.47999999
10.416 -9.8710003 0.53500003 0.41
10.411 -9.8039999 0.53399998 0.34
10.417 -9.7480001 0.53299999 0.37
10.4 -9.6709995 0.53200001 0.31999999
10.429 -9.6370001 0.53200001 0.28999999
10.434 -9.5819998 0.53100002 0.47
10.436 -9.5229998 0.52999997 0.41
10.42 -9.4790001 0.52899998 0.25
10.42 -9.4189997 0.528 0.47999999
10.426 -9.3649998 0.52700001 0.36000001
10.436 -9.3149996 0.52700001 0.28
10.435 -9.2550001 0.52600002 0.47999999
10.481 -9.2370005 0.52600002 0.28999999
10.528 -9.2200003 0.52700001 0.54000002
10.59 -9.2449999 0.528 0.33000001
10.641 -9.2299995 0.52899998 0.47
10.717 -9.2370005 0.53100002 0.30000001
10.834 -9.2790003 0.53299999 0.38
10.896 -9.2729998 0.53399998 0.34
10.973 -9.2790003 0.53600001 0.23
10.435 -8.7969999 0.51899999 0.27000001
10.427 -8.7349997 0.51800001 0.51999998
10.439 -8.6899996 0.51800001 0.36000001
10.469 -8.6590004 0.51800001 0.36000001
10.501 -8.6300001 0.51800001 0.28999999
10.505 -8.5780001 0.51700002 0.51999998
10.529 -8.5430002 0.51700002 0.38
10.53 -8.5159998 0.51700002 0.31999999
10.558 -8.4840002 0.51700002 0.34999999
10.572 -8.441 0.51599997 0.47999999
10.581 -8.3940001 0.51599997 0.34999999
10.601 -8.3559999 0.51599997 0.36000001
10.64 -8.3319998 0.51599997 0.28
10.62 -8.29 0.51499999 0.51999998
10.644 -8.2550001 0.51499999 0.36000001
10.664 -8.217 0.51499999 0.31
10.677 -8.1739998 0.51499999 0.34999999
10.688 -8.1289997 0.514 0.5
10.707 -8.0909996 0.514 0.36000001
10.715 -8.0439997 0.51300001 0.31999999
10.725 -8.0249996 0.51300001 0.34
10.735 -7.98 0.51300001 0.47999999
10.746 -7.9359999 0.51300001 0.36000001
10.764 -7.8969998 0.51200002 0.31999999
10.789 -7.8629999 0.51200002 0.34
10.778 -7.8039999 0.51099998 0.47
10.782 -7.7810001 0.51099998 0.37
10.816 -7.7540002 0.51099998 0.27000001
10.813 -7.6999998 0.51099998 0.43000001
10.816 -7.651 0.50999999 0.40000001
10.833 -7.6129999 0.50999999 0.47999999
10.844 -7.5700002 0.509 0.31
10.887 -7.5489998 0.50999999 0.31999999
10.881 -7.52 0.50999999 0.49000001
10.893 -7.4770002 0.509 0.41
10.911 -7.4400001 0.509 0.31999999
10.948 -7.414 0.509 0.50999999
10.971 -7.3800001 0.509 0.34999999
11.026 -7.3670001 0.50999999 0.27000001
11.096 -7.3629999 0.51200002 0.2
11.173 -7.388 0.51300001 0.41999999
11.256 -7.3920002 0.51499999 0.25
